1.679240	0.199380	-0.074144
1.695394	0.165097	-0.002161
1.699264	0.128731	0.070897
1.692482	0.088536	0.141684
1.675598	0.044842	0.208268
1.646660	0.000327	0.270259
1.599523	-0.037821	0.324169
1.533480	-0.061183	0.363453
1.455311	-0.071089	0.387447
1.371935	-0.076128	0.387280
1.308748	-0.096255	0.340675
1.275295	-0.113767	0.269172
1.258591	-0.088202	0.194957
1.248178	-0.047883	0.125095
1.239884	0.004034	0.062467
1.233511	0.059474	0.002609
1.236283	0.112714	-0.058949
1.244863	0.157479	-0.126854
1.262796	0.199587	-0.194710
1.301291	0.235999	-0.252917
1.375016	0.232117	-0.283865
1.454950	0.233044	-0.280948
1.528252	0.244981	-0.248497
1.593114	0.249233	-0.199687
1.645935	0.230800	-0.141185
1.679206	0.199141	-0.074245
1.695413	0.164862	-0.002275
1.699405	0.128535	0.070798
1.692631	0.088342	0.141590
1.675651	0.044624	0.208132
1.646669	0.000114	0.270108
1.599484	-0.038013	0.323996
1.533452	-0.061381	0.363285
1.455315	-0.071344	0.387391
1.371931	-0.076378	0.387358
1.308754	-0.096488	0.340793
1.275525	-0.113854	0.269082
1.258846	-0.088230	0.194910
1.248430	-0.047914	0.125033
1.240098	0.003938	0.062351
1.233331	0.059340	0.002475
1.236046	0.112638	-0.059028
1.244627	0.157401	-0.126936
1.262900	0.199375	-0.194823
1.301175	0.235868	-0.253111
1.375003	0.231878	-0.283759
1.454964	0.232797	-0.280863
1.528346	0.244750	-0.248577
1.593268	0.249127	-0.199869
1.646012	0.230599	-0.141334
1.679171	0.198903	-0.074347
1.695431	0.164627	-0.002388
1.699547	0.128338	0.070700
1.692781	0.088149	0.141496
1.675704	0.044407	0.207996
1.646679	-0.000099	0.269957
1.599445	-0.038205	0.323822
1.533424	-0.061580	0.363117
1.455320	-0.071599	0.387335
1.372102	-0.071462	0.385560
1.308848	-0.091883	0.338300
1.271025	-0.111851	0.270864
1.253777	-0.087432	0.195957
1.243447	-0.047084	0.126416
1.235971	0.006009	0.064825
1.237118	0.061899	0.005034
1.240908	0.113962	-0.057599
1.249448	0.158756	-0.125399
1.261051	0.203663	-0.192450
1.303624	0.238258	-0.249146
1.375318	0.236752	-0.285650
1.454614	0.237815	-0.282324
1.526362	0.249246	-0.246764
1.590092	0.251026	-0.196162
1.644270	0.234469	-0.138265
1.679619	0.203672	-0.072228
1.694807	0.169298	-0.000102
1.696497	0.132147	0.072604
1.689585	0.091902	0.143268
1.674402	0.048745	0.210627
1.646248	0.004229	0.272874
1.600045	-0.034224	0.327174
1.533886	-0.057443	0.366296
1.455178	-0.066437	0.388207
1.372097	-0.071711	0.385638
1.308855	-0.092116	0.338419
1.271254	-0.111939	0.270774
1.254032	-0.087460	0.195910
1.243699	-0.047114	0.126354
1.236185	0.005913	0.064708
1.236938	0.061764	0.004899
1.240670	0.113886	-0.057677
1.249212	0.158678	-0.125481
1.261155	0.203451	-0.192563
1.303507	0.238128	-0.249340
1.375306	0.236514	-0.285544
1.454628	0.237568	-0.282239
1.526455	0.249015	-0.246844
1.590246	0.250920	-0.196344
1.644347	0.234269	-0.138414
1.679584	0.203433	-0.072330
1.694825	0.169063	-0.000215
1.696639	0.131951	0.072505
1.689734	0.091709	0.143174
1.674455	0.048528	0.210491
1.646258	0.004016	0.272724
1.600006	-0.034416	0.327000
1.533858	-0.057641	0.366128
1.455183	-0.066692	0.388151
1.372093	-0.071961	0.385716
1.308861	-0.092349	0.338537
1.271484	-0.112027	0.270684
1.254288	-0.087488	0.195863
1.243952	-0.047145	0.126292
1.236399	0.005818	0.064592
1.236758	0.061630	0.004765
1.240432	0.113810	-0.057756
1.248976	0.158600	-0.125564
1.261259	0.203239	-0.192676
1.303391	0.237997	-0.249534
1.375293	0.236275	-0.285438
1.454642	0.237321	-0.282154
1.526549	0.248785	-0.246925
1.590401	0.250813	-0.196526
1.644424	0.234068	-0.138563
1.679550	0.203195	-0.072432
1.694843	0.168828	-0.000329
1.696780	0.131754	0.072406
1.689883	0.091515	0.143080
1.674508	0.048311	0.210355
1.646268	0.003802	0.272573
1.599967	-0.034608	0.326827
1.533830	-0.057840	0.365960
1.455187	-0.066947	0.388095
1.372088	-0.072210	0.385794
1.308868	-0.092582	0.338656
1.271713	-0.112115	0.270594
1.254544	-0.087517	0.195816
1.244204	-0.047176	0.126230
1.236613	0.005722	0.064475
1.236579	0.061495	0.004631
1.240195	0.113734	-0.057834
1.248741	0.158521	-0.125646
1.261363	0.203028	-0.192789
1.303274	0.237867	-0.249729
1.375281	0.236036	-0.285332
1.454656	0.237074	-0.282069
1.526642	0.248554	-0.247005
1.590555	0.250706	-0.196708
1.644501	0.233868	-0.138712
1.679515	0.202957	-0.072534
1.694861	0.168593	-0.000443
1.696922	0.131558	0.072307
1.690032	0.091322	0.142986
1.674561	0.048094	0.210219
1.646277	0.003589	0.272422
1.599928	-0.034800	0.326653
1.533801	-0.058039	0.365792
1.455191	-0.067203	0.388039
1.372083	-0.072460	0.385872
1.308874	-0.092815	0.338775
1.271942	-0.112203	0.270504
1.254800	-0.087545	0.195769
1.244456	-0.047207	0.126168
1.236827	0.005627	0.064358
1.236399	0.061361	0.004497
1.239957	0.113658	-0.057912
1.248505	0.158443	-0.125728
1.261467	0.202816	-0.192902
1.303158	0.237736	-0.249923
1.375268	0.235798	-0.285226
1.454669	0.236827	-0.281984
1.526736	0.248323	-0.247086
1.590710	0.250599	-0.196890
1.644578	0.233667	-0.138862
1.679480	0.202718	-0.072635
1.694880	0.168358	-0.000556
1.697063	0.131361	0.072209
1.690182	0.091129	0.142892
1.674613	0.047877	0.210084
1.646287	0.003375	0.272271
1.599889	-0.034991	0.326480
1.533773	-0.058237	0.365625
1.455196	-0.067458	0.387983
1.372079	-0.072710	0.385950
1.308881	-0.093048	0.338893
1.272172	-0.112290	0.270415
1.255055	-0.087573	0.195722
1.244708	-0.047238	0.126106
1.237040	0.005532	0.064242
1.236219	0.061226	0.004363
1.239719	0.113582	-0.057990
1.248270	0.158365	-0.125810
1.261571	0.202604	-0.193016
1.303041	0.237606	-0.250118
1.375256	0.235559	-0.285119
1.454683	0.236580	-0.281899
1.526829	0.248093	-0.247166
1.590864	0.250492	-0.197073
1.644655	0.233466	-0.139011
1.679445	0.202480	-0.072737
1.694898	0.168123	-0.000670
1.697205	0.131164	0.072110
1.690331	0.090936	0.142799
1.674666	0.047659	0.209948
1.646297	0.003162	0.272120
1.599849	-0.035183	0.326306
1.533745	-0.058436	0.365457
1.455200	-0.067714	0.387927
1.372074	-0.072959	0.386028
1.308887	-0.093281	0.339012
1.272401	-0.112378	0.270325
1.255311	-0.087601	0.195675
1.244960	-0.047269	0.126044
1.237254	0.005436	0.064125
1.236039	0.061092	0.004229
1.239481	0.113506	-0.058069
1.248034	0.158286	-0.125893
1.261675	0.202392	-0.193129
1.302925	0.237475	-0.250312
1.375243	0.235320	-0.285013
1.454697	0.236333	-0.281814
1.526923	0.247862	-0.247247
1.591019	0.250385	-0.197255
1.644732	0.233266	-0.139160
1.679410	0.202241	-0.072839
1.694916	0.167889	-0.000783
1.697346	0.130968	0.072011
1.690480	0.090742	0.142705
1.674719	0.047442	0.209812
1.646307	0.002949	0.271969
1.599810	-0.035375	0.326133
1.533717	-0.058635	0.365289
1.455204	-0.067969	0.387871
1.372069	-0.073209	0.386106
1.308894	-0.093514	0.339130
1.272631	-0.112466	0.270235
1.255567	-0.087629	0.195628
1.245213	-0.047300	0.125982
1.237468	0.005341	0.064008
1.235859	0.060957	0.004095
1.239244	0.113430	-0.058147
1.247798	0.158208	-0.125975
1.261779	0.202181	-0.193242
1.302808	0.237345	-0.250507
1.375231	0.235082	-0.284907
1.454711	0.236086	-0.281729
1.527016	0.247631	-0.247327
1.591173	0.250278	-0.197437
1.644809	0.233065	-0.139309
1.679376	0.202003	-0.072941
1.694934	0.167654	-0.000897
1.697488	0.130771	0.071913
1.690629	0.090549	0.142611
1.674772	0.047225	0.209676
1.646317	0.002735	0.271818
1.599771	-0.035567	0.325959
1.533689	-0.058833	0.365121
1.455209	-0.068225	0.387814
1.372065	-0.073458	0.386184
1.308900	-0.093748	0.339249
1.272860	-0.112554	0.270145
1.255823	-0.087657	0.195581
1.245465	-0.047331	0.125920
1.237682	0.005245	0.063892
1.235679	0.060823	0.003961
1.239006	0.113354	-0.058225
1.247563	0.158129	-0.126057
1.261883	0.201969	-0.193355
1.302692	0.237214	-0.250701
1.375218	0.234843	-0.284801
1.454724	0.235839	-0.281644
1.527109	0.247401	-0.247408
1.591328	0.250171	-0.197619
1.644886	0.232864	-0.139458
1.679341	0.201764	-0.073042
1.694953	0.167419	-0.001010
1.697629	0.130574	0.071814
1.690778	0.090356	0.142517
1.674824	0.047008	0.209540
1.646327	0.002522	0.271667
1.599732	-0.035759	0.325786
1.533660	-0.059032	0.364954
1.455213	-0.068480	0.387758
1.372060	-0.073708	0.386262
1.308907	-0.093981	0.339367
1.273089	-0.112642	0.270055
1.256078	-0.087686	0.195534
1.245717	-0.047362	0.125858
1.237895	0.005150	0.063775
1.235500	0.060688	0.003827
1.238768	0.113278	-0.058303
1.247327	0.158051	-0.126139
1.261987	0.201757	-0.193468
1.302575	0.237084	-0.250896
1.375206	0.234604	-0.284694
1.454738	0.235592	-0.281560
1.527203	0.247170	-0.247488
1.591482	0.250064	-0.197801
1.644963	0.232664	-0.139607
1.679306	0.201526	-0.073144
1.694971	0.167184	-0.001124
1.697771	0.130378	0.071715
1.690928	0.090162	0.142424
1.674877	0.046791	0.209404
1.646337	0.002308	0.271516
1.599693	-0.035950	0.325612
1.533632	-0.059231	0.364786
1.455217	-0.068736	0.387702
1.372055	-0.073958	0.386340
1.308913	-0.094214	0.339486
1.273319	-0.112730	0.269965
1.256334	-0.087714	0.195487
1.245969	-0.047393	0.125796
1.238109	0.005055	0.063658
1.235320	0.060554	0.003693
1.238530	0.113202	-0.058382
1.247092	0.157973	-0.126222
1.262091	0.201545	-0.193581
1.302459	0.236953	-0.251090
1.375193	0.234365	-0.284588
1.454752	0.235345	-0.281475
1.527296	0.246939	-0.247569
1.591636	0.249958	-0.197983
1.645040	0.232463	-0.139756
1.679271	0.201287	-0.073246
1.694989	0.166949	-0.001238
1.697912	0.130181	0.071616
1.691077	0.089969	0.142330
1.674930	0.046573	0.209268
1.646347	0.002095	0.271366
1.599654	-0.036142	0.325439
1.533604	-0.059429	0.364618
1.455222	-0.068991	0.387646
1.372051	-0.074207	0.386418
1.308920	-0.094447	0.339604
1.273548	-0.112818	0.269875
1.256590	-0.087742	0.195440
1.246221	-0.047424	0.125733
1.238323	0.004959	0.063542
1.235140	0.060419	0.003559
1.238293	0.113126	-0.058460
1.246856	0.157894	-0.126304
1.262194	0.201334	-0.193694
1.302342	0.236823	-0.251285
1.375181	0.234127	-0.284482
1.454766	0.235098	-0.281390
1.527390	0.246709	-0.247649
1.591791	0.249851	-0.198165
1.645117	0.232263	-0.139905
1.679236	0.201049	-0.073347
1.695007	0.166714	-0.001351
1.698054	0.129985	0.071518
1.691226	0.089776	0.142236
1.674983	0.046356	0.209132
1.646356	0.001882	0.271215
1.599615	-0.036334	0.325265
1.533576	-0.059628	0.364450
1.455226	-0.069246	0.387590
1.372046	-0.074457	0.386496
1.308926	-0.094680	0.339723
1.273777	-0.112906	0.269785
1.256846	-0.087770	0.195393
1.246474	-0.047455	0.125671
1.238537	0.004864	0.063425
1.234960	0.060285	0.003425
1.238055	0.113050	-0.058538
1.246620	0.157816	-0.126386
1.262298	0.201122	-0.193807
1.302226	0.236692	-0.251479
1.375168	0.233888	-0.284376
1.454779	0.234851	-0.281305
1.527483	0.246478	-0.247730
1.591945	0.249744	-0.198347
1.645194	0.232062	-0.140054
1.679202	0.200811	-0.073449
1.695025	0.166479	-0.001465
1.698195	0.129788	0.071419
1.691375	0.089582	0.142142
1.675035	0.046139	0.208996
1.646366	0.001668	0.271064
1.599576	-0.036526	0.325092
1.533548	-0.059827	0.364282
1.455230	-0.069502	0.387534
1.372041	-0.074707	0.386574
1.308933	-0.094913	0.339841
1.274007	-0.112993	0.269695
1.257101	-0.087798	0.195346
1.246726	-0.047486	0.125609
1.238750	0.004768	0.063308
1.234780	0.060150	0.003291
1.237817	0.112974	-0.058616
1.246385	0.157737	-0.126468
1.262402	0.200910	-0.193920
1.302109	0.236562	-0.251673
1.375156	0.233649	-0.284269
1.454793	0.234604	-0.281220
1.527577	0.246248	-0.247810
1.592100	0.249637	-0.198529
1.645271	0.231861	-0.140203
1.679167	0.200572	-0.073551
1.695044	0.166244	-0.001578
1.698336	0.129591	0.071320
1.691524	0.089389	0.142049
1.675088	0.045922	0.208861
1.646376	0.001455	0.270913
1.599537	-0.036717	0.324918
1.533519	-0.060025	0.364115
1.455235	-0.069757	0.387478
1.372037	-0.074956	0.386652
1.308939	-0.095146	0.339960
1.274236	-0.113081	0.269606
1.257357	-0.087826	0.195299
1.246978	-0.047517	0.125547
1.238964	0.004673	0.063191
1.234600	0.060016	0.003156
1.237579	0.112898	-0.058694
1.246149	0.157659	-0.126551
1.262506	0.200698	-0.194033
1.301993	0.236431	-0.251868
1.375143	0.233411	-0.284163
1.454807	0.234357	-0.281135
1.527670	0.246017	-0.247891
1.592254	0.249530	-0.198711
1.645348	0.231661	-0.140353
1.679132	0.200334	-0.073653
1.695062	0.166009	-0.001692
1.698478	0.129395	0.071222
1.691674	0.089196	0.141955
1.675141	0.045705	0.208725
1.646386	0.001241	0.270762
1.599497	-0.036909	0.324745
1.533491	-0.060224	0.363947
1.455239	-0.070013	0.387422
1.372032	-0.075206	0.386730
1.308946	-0.095379	0.340078
1.274466	-0.113169	0.269516
1.257613	-0.087855	0.195252
1.247230	-0.047548	0.125485
1.239178	0.004578	0.063075
1.234420	0.059881	0.003022
1.237342	0.112822	-0.058773
1.245914	0.157581	-0.126633
1.262610	0.200487	-0.194146
1.301876	0.236301	-0.252062
1.375131	0.233172	-0.284057
1.454820	0.234110	-0.281050
1.527764	0.245786	-0.247971
1.592409	0.249423	-0.198893
1.645425	0.231460	-0.140502
1.679097	0.200095	-0.073754
1.695080	0.165774	-0.001805
1.698619	0.129198	0.071123
1.691823	0.089003	0.141861
1.675194	0.045488	0.208589
1.646396	0.001028	0.270611
1.599458	-0.037101	0.324571
1.533463	-0.060423	0.363779
1.455243	-0.070268	0.387366
1.372027	-0.075455	0.386808
1.308952	-0.095612	0.340197
1.274695	-0.113257	0.269426
1.257869	-0.087883	0.195205
1.247482	-0.047579	0.125423
1.239392	0.004482	0.062958
1.234241	0.059746	0.002888
1.237104	0.112746	-0.058851
1.245678	0.157502	-0.126715
1.262714	0.200275	-0.194259
1.301760	0.236170	-0.252257
1.375118	0.232933	-0.283951
1.454834	0.233863	-0.280965
1.527857	0.245556	-0.248052
1.592563	0.249316	-0.199075
1.645502	0.231259	-0.140651
1.679062	0.199857	-0.073856
1.695098	0.165539	-0.001919
1.698761	0.129002	0.071024
1.691972	0.088809	0.141767
1.675246	0.045270	0.208453
1.646406	0.000814	0.270460
1.599419	-0.037293	0.324397
1.533435	-0.060621	0.363611
1.455247	-0.070524	0.387310
1.372023	-0.075705	0.386886
1.308959	-0.095845	0.340315
1.274924	-0.113345	0.269336
1.258124	-0.087911	0.195158
1.247735	-0.047610	0.125361
1.239605	0.004387	0.062841
1.234061	0.059612	0.002754
1.236866	0.112670	-0.058929
1.245442	0.157424	-0.126797
1.262818	0.200063	-0.194372
1.301643	0.236040	-0.252451
1.375106	0.232695	-0.283845
1.454848	0.233616	-0.280880
1.527951	0.245325	-0.248132
1.592718	0.249209	-0.199257
1.645579	0.231059	-0.140800
1.679028	0.199618	-0.073958
1.695117	0.165304	-0.002033
1.698902	0.128805	0.070925
1.692121	0.088616	0.141674
1.675299	0.045053	0.208317
1.646416	0.000601	0.270309
1.599380	-0.037484	0.324224
1.533407	-0.060820	0.363444
1.455252	-0.070779	0.387254
1.372018	-0.075955	0.386964
1.308965	-0.096078	0.340434
1.275154	-0.113433	0.269246
1.258380	-0.087939	0.195110
1.247987	-0.047641	0.125299
1.239819	0.004291	0.062725
1.233881	0.059477	0.002620
1.236629	0.112594	-0.059007
1.245207	0.157345	-0.126880
1.262922	0.199851	-0.194485
1.301527	0.235909	-0.252646
1.375093	0.232456	-0.283738
1.454862	0.233369	-0.280795
1.528044	0.245094	-0.248213
1.592872	0.249103	-0.199439
1.645656	0.230858	-0.140949
1.678993	0.199380	-0.074060
1.695135	0.165070	-0.002146
1.699044	0.128608	0.070827
1.692270	0.088423	0.141580
1.675352	0.044836	0.208181
1.646426	0.000388	0.270158
1.599341	-0.037676	0.324050
1.533378	-0.061019	0.363276
1.455256	-0.071035	0.387197
1.372013	-0.076204	0.387042
1.308972	-0.096311	0.340552
1.275383	-0.113521	0.269156
1.258636	-0.087967	0.195063
1.248239	-0.047672	0.125237
1.240033	0.004196	0.062608
1.233701	0.059343	0.002486
1.236391	0.112518	-0.059086
1.244971	0.157267	-0.126962
1.263026	0.199640	-0.194598
1.301410	0.235779	-0.252840
1.375081	0.232217	-0.283632
1.454875	0.233122	-0.280710
1.528137	0.244864	-0.248293
1.593026	0.248996	-0.199621
1.645733	0.230658	-0.141098
1.678958	0.199142	-0.074161
1.695153	0.164835	-0.002260
1.699185	0.128412	0.070728
1.692420	0.088229	0.141486
1.675405	0.044619	0.208045
1.646436	0.000174	0.270007
1.599302	-0.037868	0.323877
1.533350	-0.061217	0.363108
1.455260	-0.071290	0.387141
1.372175	-0.071787	0.385400
1.309079	-0.092172	0.338296
1.271342	-0.111693	0.270758
1.254078	-0.087226	0.196017
1.243760	-0.046903	0.126496
1.236334	0.006076	0.064849
1.237128	0.061633	0.004777
1.240777	0.113690	-0.057814
1.249320	0.158466	-0.125589
1.261385	0.203504	-0.192451
1.303626	0.237907	-0.249263
1.375371	0.236614	-0.285311
1.454553	0.237645	-0.282001
1.526341	0.248898	-0.246641
1.590159	0.250682	-0.196279
1.644145	0.234127	-0.138327
1.679337	0.203434	-0.072246
1.694565	0.169036	-0.000200
1.696419	0.131828	0.072435
1.689522	0.091596	0.143070
1.674208	0.048522	0.210404
1.646024	0.004076	0.272623
1.599823	-0.034271	0.326881
1.533756	-0.057477	0.365951
1.455128	-0.066638	0.387901
1.372171	-0.072037	0.385478
1.309086	-0.092405	0.338415
1.271572	-0.111781	0.270668
1.254334	-0.087254	0.195970
1.244012	-0.046934	0.126434
1.236548	0.005980	0.064732
1.236948	0.061498	0.004643
1.240540	0.113614	-0.057892
1.249085	0.158387	-0.125671
1.261489	0.203292	-0.192564
1.303509	0.237777	-0.249458
1.375358	0.236375	-0.285205
1.454567	0.237398	-0.281916
1.526434	0.248667	-0.246721
1.590314	0.250575	-0.196461
1.644222	0.233926	-0.138476
1.679302	0.203195	-0.072348
1.694584	0.168801	-0.000314
1.696560	0.131631	0.072336
1.689671	0.091402	0.142976
1.674261	0.048305	0.210268
1.646034	0.003862	0.272472
1.599784	-0.034463	0.326708
1.533728	-0.057676	0.365783
1.455132	-0.066894	0.387845
1.372166	-0.072286	0.385556
1.309092	-0.092638	0.338534
1.271801	-0.111869	0.270578
1.254589	-0.087282	0.195923
1.244265	-0.046965	0.126372
1.236762	0.005885	0.064616
1.236768	0.061364	0.004509
1.240302	0.113538	-0.057970
1.248849	0.158309	-0.125754
1.261593	0.203081	-0.192677
1.303393	0.237646	-0.249652
1.375346	0.236137	-0.285099
1.454581	0.237151	-0.281831
1.526527	0.248437	-0.246802
1.590468	0.250468	-0.196643
1.644299	0.233725	-0.138625
1.679267	0.202957	-0.072450
1.694602	0.168566	-0.000427
1.696702	0.131435	0.072237
1.689821	0.091209	0.142882
1.674314	0.048088	0.210133
1.646043	0.003649	0.272321
1.599745	-0.034655	0.326534
1.533700	-0.057875	0.365616
1.455136	-0.067149	0.387789
1.372161	-0.072536	0.385634
1.309099	-0.092871	0.338652
1.272030	-0.111957	0.270488
1.254845	-0.087310	0.195876
1.244517	-0.046996	0.126310
1.236976	0.005789	0.064499
1.236589	0.061229	0.004374
1.240064	0.113462	-0.058048
1.248613	0.158231	-0.125836
1.261697	0.202869	-0.192790
1.303276	0.237516	-0.249847
1.375333	0.235898	-0.284993
1.454594	0.236904	-0.281746
1.526621	0.248206	-0.246882
1.590623	0.250361	-0.196825
1.644376	0.233525	-0.138775
1.679232	0.202718	-0.072551
1.694620	0.168331	-0.000541
1.696843	0.131238	0.072139
1.689970	0.091016	0.142789
1.674367	0.047871	0.209997
1.646053	0.003436	0.272171
1.599706	-0.034847	0.326361
1.533672	-0.058073	0.365448
1.455141	-0.067404	0.387733
1.372157	-0.072785	0.385712
1.309105	-0.093104	0.338771
1.272260	-0.112045	0.270398
1.255101	-0.087338	0.195829
1.244769	-0.047027	0.126247
1.237190	0.005694	0.064382
1.236409	0.061095	0.004240
1.239827	0.113386	-0.058127
1.248378	0.158152	-0.125918
1.261801	0.202657	-0.192903
1.303160	0.237385	-0.250041
1.375321	0.235659	-0.284887
1.454608	0.236657	-0.281661
1.526714	0.247975	-0.246963
1.590777	0.250254	-0.197007
1.644453	0.233324	-0.138924
1.679197	0.202480	-0.072653
1.694638	0.168096	-0.000655
1.696985	0.131041	0.072040
1.690119	0.090822	0.142695
1.674419	0.047654	0.209861
1.646063	0.003222	0.272020
1.599667	-0.035038	0.326187
1.533644	-0.058272	0.365280
1.455145	-0.067660	0.387677
1.372152	-0.073035	0.385790
1.309112	-0.093337	0.338889
1.272489	-0.112132	0.270309
1.255357	-0.087367	0.195782
1.245021	-0.047058	0.126185
1.237403	0.005599	0.064266
1.236229	0.060960	0.004106
1.239589	0.113310	-0.058205
1.248142	0.158074	-0.126000
1.261905	0.202445	-0.193016
1.303043	0.237255	-0.250236
1.375308	0.235420	-0.284780
1.454622	0.236410	-0.281576
1.526808	0.247745	-0.247043
1.590931	0.250147	-0.197189
1.644530	0.233124	-0.139073
1.679163	0.202242	-0.072755
1.694656	0.167861	-0.000768
1.697126	0.130845	0.071941
1.690268	0.090629	0.142601
1.674472	0.047437	0.209725
1.646073	0.003009	0.271869
1.599628	-0.035230	0.326014
1.533615	-0.058471	0.365112
1.455149	-0.067915	0.387621
1.372147	-0.073285	0.385868
1.309118	-0.093570	0.339008
1.272718	-0.112220	0.270219
1.255612	-0.087395	0.195735
1.245273	-0.047089	0.126123
1.237617	0.005503	0.064149
1.236049	0.060826	0.003972
1.239351	0.113234	-0.058283
1.247907	0.157995	-0.126083
1.262009	0.202234	-0.193129
1.302927	0.237124	-0.250430
1.375296	0.235182	-0.284674
1.454636	0.236163	-0.281491
1.526901	0.247514	-0.247124
1.591086	0.250041	-0.197371
1.644607	0.232923	-0.139222
1.679128	0.202003	-0.072857
1.694675	0.167626	-0.000882
1.697268	0.130648	0.071842
1.690417	0.090436	0.142507
1.674525	0.047219	0.209589
1.646083	0.002795	0.271718
1.599589	-0.035422	0.325840
1.533587	-0.058669	0.364944
1.455154	-0.068171	0.387565
1.372143	-0.073534	0.385946
1.309125	-0.093804	0.339126
1.272948	-0.112308	0.270129
1.255868	-0.087423	0.195688
1.245526	-0.047120	0.126061
1.237831	0.005408	0.064032
1.235869	0.060691	0.003838
1.239113	0.113158	-0.058361
1.247671	0.157917	-0.126165
1.262113	0.202022	-0.193242
1.302810	0.236994	-0.250624
1.375283	0.234943	-0.284568
1.454649	0.235916	-0.281406
1.526995	0.247283	-0.247204
1.591240	0.249934	-0.197553
1.644684	0.232722	-0.139371
1.679093	0.201765	-0.072958
1.694693	0.167391	-0.000995
1.697409	0.130452	0.071744
1.690567	0.090243	0.142414
1.674578	0.047002	0.209453
1.646093	0.002582	0.271567
1.599550	-0.035614	0.325667
1.533559	-0.058868	0.364777
1.455158	-0.068426	0.387508
1.372138	-0.073784	0.386024
1.309131	-0.094037	0.339245
1.273177	-0.112396	0.270039
1.256124	-0.087451	0.195640
1.245778	-0.047151	0.125999
1.238045	0.005312	0.063915
1.235689	0.060557	0.003704
1.238876	0.113082	-0.058440
1.247435	0.157839	-0.126247
1.262217	0.201810	-0.193355
1.302694	0.236863	-0.250819
1.375271	0.234704	-0.284462
1.454663	0.235669	-0.281321
1.527088	0.247053	-0.247285
1.591395	0.249827	-0.197735
1.644761	0.232522	-0.139520
1.679058	0.201526	-0.073060
1.694711	0.167156	-0.001109
1.697551	0.130255	0.071645
1.690716	0.090049	0.142320
1.674630	0.046785	0.209317
1.646103	0.002368	0.271416
1.599511	-0.035805	0.325493
1.533531	-0.059067	0.364609
1.455162	-0.068682	0.387452
1.372133	-0.074034	0.386102
1.309138	-0.094270	0.339363
1.273406	-0.112484	0.269949
1.256380	-0.087479	0.195593
1.246030	-0.047182	0.125937
1.238258	0.005217	0.063799
1.235510	0.060422	0.003570
1.238638	0.113006	-0.058518
1.247200	0.157760	-0.126329
1.262321	0.201598	-0.193468
1.302577	0.236733	-0.251013
1.375258	0.234466	-0.284355
1.454677	0.235422	-0.281236
1.527182	0.246822	-0.247365
1.591549	0.249720	-0.197917
1.644838	0.232321	-0.139669
1.679023	0.201288	-0.073162
1.694729	0.166921	-0.001222
1.697692	0.130058	0.071546
1.690865	0.089856	0.142226
1.674683	0.046568	0.209181
1.646113	0.002155	0.271265
1.599471	-0.035997	0.325320
1.533503	-0.059266	0.364441
1.455167	-0.068937	0.387396
1.372129	-0.074283	0.386180
1.309144	-0.094503	0.339482
1.273636	-0.112572	0.269859
1.256635	-0.087507	0.195546
1.246282	-0.047213	0.125875
1.238472	0.005122	0.063682
1.235330	0.060288	0.003436
1.238400	0.112930	-0.058596
1.246964	0.157682	-0.126412
1.262425	0.201387	-0.193581
1.302461	0.236602	-0.251208
1.375246	0.234227	-0.284249
1.454691	0.235175	-0.281151
1.527275	0.246591	-0.247446
1.591704	0.249613	-0.198099
1.644915	0.232120	-0.139818
1.678989	0.201049	-0.073264
1.694748	0.166686	-0.001336
1.697834	0.129862	0.071448
1.691014	0.089663	0.142132
1.674736	0.046351	0.209046
1.646123	0.001942	0.271114
1.599432	-0.036189	0.325146
1.533474	-0.059464	0.364273
1.455171	-0.069192	0.387340
1.372124	-0.074533	0.386258
1.309151	-0.094736	0.339600
1.273865	-0.112660	0.269769
1.256891	-0.087536	0.195499
1.246534	-0.047244	0.125813
1.238686	0.005026	0.063565
1.235150	0.060153	0.003302
1.238162	0.112854	-0.058674
1.246729	0.157604	-0.126494
1.262529	0.201175	-0.193694
1.302344	0.236472	-0.251402
1.375233	0.233988	-0.284143
1.454704	0.234928	-0.281066
1.527369	0.246361	-0.247526
1.591858	0.249506	-0.198281
1.644992	0.231920	-0.139967
1.678954	0.200811	-0.073365
1.694766	0.166452	-0.001450
1.697975	0.129665	0.071349
1.691163	0.089469	0.142039
1.674789	0.046133	0.208910
1.646132	0.001728	0.270963
1.599393	-0.036381	0.324973
1.533446	-0.059663	0.364106
1.455175	-0.069448	0.387284
1.372119	-0.074782	0.386336
1.309157	-0.094969	0.339719
1.274095	-0.112748	0.269679
1.257147	-0.087564	0.195452
1.246787	-0.047274	0.125751
1.238900	0.004931	0.063449
1.234970	0.060018	0.003168
1.237925	0.112778	-0.058753
1.246493	0.157525	-0.126576
1.262632	0.200963	-0.193807
1.302228	0.236341	-0.251597
1.375220	0.233750	-0.284037
1.454718	0.234681	-0.280981
1.527462	0.246130	-0.247607
1.592013	0.249399	-0.198463
1.645069	0.231719	-0.140116
1.678919	0.200573	-0.073467
1.694784	0.166217	-0.001563
1.698117	0.129468	0.071250
1.691313	0.089276	0.141945
1.674841	0.045916	0.208774
1.646142	0.001515	0.270812
1.599354	-0.036573	0.324799
1.533418	-0.059862	0.363938
1.455179	-0.069703	0.387228
1.372115	-0.075032	0.386414
1.309164	-0.095202	0.339837
1.274324	-0.112836	0.269589
1.257403	-0.087592	0.195405
1.247039	-0.047305	0.125689
1.239113	0.004835	0.063332
1.234790	0.059884	0.003034
1.237687	0.112702	-0.058831
1.246258	0.157447	-0.126658
1.262736	0.200751	-0.193920
1.302111	0.236211	-0.251791
1.375208	0.233511	-0.283930
1.454732	0.234434	-0.280896
1.527556	0.245899	-0.247687
1.592167	0.249292	-0.198645
1.645146	0.231519	-0.140266
1.678884	0.200334	-0.073569
1.694802	0.165982	-0.001677
1.698258	0.129272	0.071151
1.691462	0.089083	0.141851
1.674894	0.045699	0.208638
1.646152	0.001301	0.270662
1.599315	-0.036764	0.324626
1.533390	-0.060060	0.363770
1.455184	-0.069959	0.387172
1.372110	-0.075282	0.386492
1.309170	-0.095435	0.339956
1.274553	-0.112923	0.269499
1.257658	-0.087620	0.195358
1.247291	-0.047336	0.125626
1.239327	0.004740	0.063215
1.234610	0.059749	0.002900
1.237449	0.112626	-0.058909
1.246022	0.157368	-0.126741
1.262840	0.200540	-0.194033
1.301995	0.236080	-0.251986
1.375195	0.233272	-0.283824
1.454745	0.234187	-0.280812
1.527649	0.245669	-0.247768
1.592321	0.249186	-0.198827
1.645224	0.231318	-0.140415
1.678849	0.200096	-0.073671
1.694820	0.165747	-0.001790
1.698400	0.129075	0.071053
1.691611	0.088889	0.141757
1.674947	0.045482	0.208502
1.646162	0.001088	0.270511
1.599276	-0.036956	0.324452
1.533362	-0.060259	0.363602
1.455188	-0.070214	0.387116
1.372105	-0.075531	0.386570
1.309177	-0.095668	0.340074
1.274783	-0.113011	0.269410
1.257914	-0.087648	0.195311
1.247543	-0.047367	0.125564
1.239541	0.004645	0.063099
1.234430	0.059615	0.002766
1.237211	0.112550	-0.058987
1.245786	0.157290	-0.126823
1.262944	0.200328	-0.194146
1.301878	0.235950	-0.252180
1.375183	0.233034	-0.283718
1.454759	0.233940	-0.280727
1.527742	0.245438	-0.247848
1.592476	0.249079	-0.199009
1.645301	0.231117	-0.140564
1.678815	0.199857	-0.073772
1.694839	0.165512	-0.001904
1.698541	0.128879	0.070954
1.691760	0.088696	0.141664
1.675000	0.045265	0.208366
1.646172	0.000875	0.270360
1.599237	-0.037148	0.324279
1.533333	-0.060458	0.363434
1.455192	-0.070470	0.387060
1.372101	-0.075781	0.386648
1.309183	-0.095901	0.340193
1.275012	-0.113099	0.269320
1.258170	-0.087676	0.195264
1.247795	-0.047398	0.125502
1.239755	0.004549	0.062982
1.234251	0.059480	0.002631
1.236974	0.112474	-0.059065
1.245551	0.157212	-0.126905
1.263048	0.200116	-0.194259
1.301762	0.235819	-0.252375
1.375170	0.232795	-0.283612
1.454773	0.233693	-0.280642
1.527836	0.245207	-0.247929
1.592630	0.248972	-0.199191
1.645378	0.230917	-0.140713
1.678780	0.199619	-0.073874
1.694857	0.165277	-0.002017
1.698682	0.128682	0.070855
1.691909	0.088503	0.141570
1.675052	0.045048	0.208230
1.646182	0.000661	0.270209
1.599198	-0.037340	0.324105
1.533305	-0.060656	0.363267
1.455197	-0.070725	0.387004
1.372096	-0.076030	0.386726
1.309189	-0.096134	0.340311
1.275241	-0.113187	0.269230
1.258426	-0.087704	0.195217
1.248048	-0.047429	0.125440
1.239968	0.004454	0.062865
1.234071	0.059346	0.002497
1.236736	0.112398	-0.059144
1.245315	0.157133	-0.126987
1.263152	0.199904	-0.194372
1.301645	0.235689	-0.252569
1.375158	0.232556	-0.283506
1.454787	0.233446	-0.280557
1.527929	0.244977	-0.248009
1.592785	0.248865	-0.199374
1.645455	0.230716	-0.140862
1.678745	0.199380	-0.073976
1.694875	0.165042	-0.002131
1.698824	0.128485	0.070757
1.692059	0.088310	0.141476
1.675105	0.044830	0.208094
1.646192	0.000448	0.270058
1.599159	-0.037531	0.323931
1.533277	-0.060855	0.363099
1.455201	-0.070981	0.386947
1.372249	-0.072112	0.385240
1.309310	-0.092461	0.338293
1.271659	-0.111535	0.270652
1.254379	-0.087019	0.196076
1.244073	-0.046722	0.126575
1.236697	0.006143	0.064873
1.237138	0.061367	0.004520
1.240647	0.113419	-0.058028
1.249193	0.158175	-0.125779
1.261719	0.203345	-0.192451
1.303628	0.237557	-0.249381
1.375423	0.236475	-0.284972
1.454492	0.237476	-0.281678
1.526319	0.248550	-0.246518
1.590227	0.250337	-0.196395
1.644020	0.233784	-0.138389
1.679054	0.203196	-0.072264
1.694324	0.168773	-0.000299
1.696340	0.131508	0.072266
1.689460	0.091289	0.142872
1.674014	0.048300	0.210182
1.645800	0.003923	0.272372
1.599602	-0.034318	0.326589
1.533627	-0.057512	0.365606
1.455077	-0.066840	0.387595
1.372244	-0.072362	0.385318
1.309316	-0.092694	0.338411
1.271889	-0.111623	0.270562
1.254635	-0.087048	0.196029
1.244325	-0.046753	0.126513
1.236911	0.006047	0.064756
1.236958	0.061232	0.004386
1.240409	0.113343	-0.058106
1.248957	0.158097	-0.125861
1.261823	0.203133	-0.192564
1.303511	0.237426	-0.249575
1.375410	0.236237	-0.284866
1.454506	0.237229	-0.281593
1.526413	0.248319	-0.246598
1.590381	0.250230	-0.196577
1.644097	0.233583	-0.138538
1.679019	0.202957	-0.072366
1.694342	0.168538	-0.000412
1.696482	0.131312	0.072167
1.689609	0.091096	0.142779
1.674067	0.048082	0.210046
1.645810	0.003709	0.272221
1.599563	-0.034510	0.326415
1.533598	-0.057711	0.365439
1.455081	-0.067095	0.387539
1.372239	-0.072612	0.385396
1.309323	-0.092927	0.338530
1.272118	-0.111711	0.270472
1.254891	-0.087076	0.195982
1.244578	-0.046784	0.126451
1.237125	0.005952	0.064640
1.236779	0.061098	0.004252
1.240172	0.113267	-0.058185
1.248722	0.158018	-0.125944
1.261927	0.202922	-0.192677
1.303395	0.237296	-0.249770
1.375398	0.235998	-0.284760
1.454519	0.236982	-0.281508
1.526506	0.248088	-0.246679
1.590535	0.250123	-0.196759
1.644174	0.233383	-0.138688
1.678984	0.202719	-0.072468
1.694360	0.168303	-0.000526
1.696623	0.131115	0.072068
1.689758	0.090903	0.142685
1.674120	0.047865	0.209910
1.645819	0.003496	0.272070
1.599524	-0.034702	0.326242
1.533570	-0.057910	0.365271
1.455086	-0.067350	0.387483
1.372235	-0.072861	0.385474
1.309329	-0.093160	0.338648
1.272347	-0.111799	0.270382
1.255146	-0.087104	0.195935
1.244830	-0.046815	0.126389
1.237339	0.005857	0.064523
1.236599	0.060963	0.004118
1.239934	0.113191	-0.058263
1.248486	0.157940	-0.126026
1.262031	0.202710	-0.192790
1.303278	0.237165	-0.249964
1.375385	0.235759	-0.284654
1.454533	0.236735	-0.281423
1.526600	0.247858	-0.246759
1.590690	0.250017	-0.196941
1.644252	0.233182	-0.138837
1.678950	0.202480	-0.072569
1.694379	0.168068	-0.000639
1.696765	0.130918	0.071970
1.689907	0.090709	0.142591
1.674173	0.047648	0.209774
1.645829	0.003282	0.271919
1.599485	-0.034894	0.326068
1.533542	-0.058108	0.365103
1.455090	-0.067606	0.387427
1.372230	-0.073111	0.385552
1.309336	-0.093393	0.338767
1.272577	-0.111887	0.270292
1.255402	-0.087132	0.195888
1.245082	-0.046846	0.126327
1.237553	0.005761	0.064406
1.236419	0.060829	0.003984
1.239696	0.113115	-0.058341
1.248251	0.157862	-0.126108
1.262135	0.202498	-0.192904
1.303162	0.237035	-0.250159
1.375373	0.235521	-0.284548
1.454547	0.236488	-0.281338
1.526693	0.247627	-0.246840
1.590844	0.249910	-0.197123
1.644329	0.232981	-0.138986
1.678915	0.202242	-0.072671
1.694397	0.167834	-0.000753
1.696906	0.130722	0.071871
1.690056	0.090516	0.142497
1.674225	0.047431	0.209638
1.645839	0.003069	0.271768
1.599445	-0.035085	0.325895
1.533514	-0.058307	0.364935
1.455094	-0.067861	0.387371
1.372225	-0.073360	0.385630
1.309342	-0.093627	0.338885
1.272806	-0.111975	0.270202
1.255658	-0.087160	0.195841
1.245334	-0.046877	0.126265
1.237766	0.005666	0.064289
1.236239	0.060694	0.003850
1.239458	0.113039	-0.058419
1.248015	0.157783	-0.126190
1.262239	0.202286	-0.193017
1.303045	0.236904	-0.250353
1.375360	0.235282	-0.284441
1.454561	0.236241	-0.281253
1.526787	0.247396	-0.246920
1.590999	0.249803	-0.197305
1.644406	0.232781	-0.139135
1.678880	0.202004	-0.072773
1.694415	0.167599	-0.000867
1.697048	0.130525	0.071772
1.690206	0.090323	0.142404
1.674278	0.047214	0.209502
1.645849	0.002855	0.271618
1.599406	-0.035277	0.325721
1.533486	-0.058506	0.364768
1.455099	-0.068117	0.387315
1.372221	-0.073610	0.385708
1.309349	-0.093860	0.339004
1.273036	-0.112062	0.270113
1.255914	-0.087188	0.195794
1.245586	-0.046908	0.126203
1.237980	0.005570	0.064173
1.236059	0.060560	0.003715
1.239221	0.112963	-0.058498
1.247779	0.157705	-0.126273
1.262343	0.202075	-0.193130
1.302929	0.236774	-0.250548
1.375348	0.235043	-0.284335
1.454574	0.235994	-0.281168
1.526880	0.247166	-0.247001
1.591153	0.249696	-0.197487
1.644483	0.232580	-0.139284
1.678845	0.201765	-0.072874
1.694433	0.167364	-0.000980
1.697189	0.130329	0.071673
1.690355	0.090129	0.142310
1.674331	0.046997	0.209366
1.645859	0.002642	0.271467
1.599367	-0.035469	0.325548
1.533457	-0.058704	0.364600
1.455103	-0.068372	0.387258
1.372216	-0.073860	0.385786
1.309355	-0.094093	0.339122
1.273265	-0.112150	0.270023
1.256169	-0.087217	0.195747
1.245839	-0.046939	0.126140
1.238194	0.005475	0.064056
1.235879	0.060425	0.003581
1.238983	0.112887	-0.058576
1.247544	0.157626	-0.126355
1.262447	0.201863	-0.193243
1.302812	0.236643	-0.250742
1.375335	0.234805	-0.284229
1.454588	0.235747	-0.281083
1.526974	0.246935	-0.247081
1.591308	0.249589	-0.197670
1.644560	0.232380	-0.139433
1.678810	0.201527	-0.072976
1.694451	0.167129	-0.001094
1.697331	0.130132	0.071575
1.690504	0.089936	0.142216
1.674384	0.046779	0.209230
1.645869	0.002429	0.271316
1.599328	-0.035661	0.325374
1.533429	-0.058903	0.364432
1.455107	-0.068628	0.387202
1.372211	-0.074109	0.385864
1.309362	-0.094326	0.339241
1.273494	-0.112238	0.269933
1.256425	-0.087245	0.195700
1.246091	-0.046970	0.126078
1.238408	0.005379	0.063939
1.235699	0.060290	0.003447
1.238745	0.112811	-0.058654
1.247308	0.157548	-0.126437
1.262551	0.201651	-0.193356
1.302696	0.236513	-0.250937
1.375323	0.234566	-0.284123
1.454602	0.235500	-0.280998
1.527067	0.246704	-0.247162
1.591462	0.249482	-0.197852
1.644637	0.232179	-0.139582
1.678776	0.201288	-0.073078
1.694470	0.166894	-0.001207
1.697472	0.129935	0.071476
1.690653	0.089743	0.142122
1.674436	0.046562	0.209095
1.645879	0.002215	0.271165
1.599289	-0.035852	0.325201
1.533401	-0.059102	0.364264
1.455111	-0.068883	0.387146
1.372207	-0.074359	0.385942
1.309368	-0.094559	0.339359
1.273724	-0.112326	0.269843
1.256681	-0.087273	0.195653
1.246343	-0.047001	0.126016
1.238621	0.005284	0.063823
1.235520	0.060156	0.003313
1.238508	0.112735	-0.058732
1.247073	0.157470	-0.126519
1.262655	0.201439	-0.193469
1.302579	0.236382	-0.251131
1.375310	0.234327	-0.284016
1.454616	0.235253	-0.280913
1.527161	0.246474	-0.247242
1.591617	0.249375	-0.198034
1.644714	0.231978	-0.139731
1.678741	0.201050	-0.073180
1.694488	0.166659	-0.001321
1.697614	0.129739	0.071377
1.690802	0.089549	0.142029
1.674489	0.046345	0.208959
1.645889	0.002002	0.271014
1.599250	-0.036044	0.325027
1.533373	-0.059300	0.364096
1.455116	-0.069139	0.387090
1.372202	-0.074609	0.386020
1.309375	-0.094792	0.339478
1.273953	-0.112414	0.269753
1.256937	-0.087301	0.195606
1.246595	-0.047032	0.125954
1.238835	0.005189	0.063706
1.235340	0.060021	0.003179
1.238270	0.112659	-0.058811
1.246837	0.157391	-0.126602
1.262759	0.201228	-0.193582
1.302463	0.236252	-0.251326
1.375298	0.234088	-0.283910
1.454629	0.235006	-0.280828
1.527254	0.246243	-0.247323
1.591771	0.249268	-0.198216
1.644791	0.231778	-0.139880
1.678706	0.200811	-0.073281
1.694506	0.166424	-0.001434
1.697755	0.129542	0.071279
1.690952	0.089356	0.141935
1.674542	0.046128	0.208823
1.645898	0.001788	0.270863
1.599211	-0.036236	0.324854
1.533345	-0.059499	0.363929
1.455120	-0.069394	0.387034
1.372197	-0.074858	0.386098
1.309381	-0.095025	0.339596
1.274182	-0.112502	0.269663
1.257192	-0.087329	0.195559
1.246847	-0.047063	0.125892
1.239049	0.005093	0.063589
1.235160	0.059887	0.003045
1.238032	0.112583	-0.058889
1.246601	0.157313	-0.126684
1.262863	0.201016	-0.193695
1.302346	0.236121	-0.251520
1.375285	0.233850	-0.283804
1.454643	0.234759	-0.280743
1.527347	0.246012	-0.247403
1.591925	0.249162	-0.198398
1.644868	0.231577	-0.140029
1.678671	0.200573	-0.073383
1.694524	0.166189	-0.001548
1.697897	0.129345	0.071180
1.691101	0.089163	0.141841
1.674595	0.045911	0.208687
1.645908	0.001575	0.270712
1.599172	-0.036428	0.324680
1.533316	-0.059698	0.363761
1.455124	-0.069649	0.386978
1.372193	-0.075108	0.386176
1.309388	-0.095258	0.339715
1.274412	-0.112590	0.269573
1.257448	-0.087357	0.195512
1.247100	-0.047094	0.125830
1.239263	0.004998	0.063473
1.234980	0.059752	0.002911
1.237794	0.112507	-0.058967
1.246366	0.157234	-0.126766
1.262967	0.200804	-0.193808
1.302230	0.235991	-0.251714
1.375273	0.233611	-0.283698
1.454657	0.234512	-0.280658
1.527441	0.245782	-0.247484
1.592080	0.249055	-0.198580
1.644945	0.231376	-0.140179
1.678636	0.200334	-0.073485
1.694543	0.165954	-0.001662
1.698038	0.129149	0.071081
1.691250	0.088970	0.141747
1.674647	0.045693	0.208551
1.645918	0.001361	0.270561
1.599133	-0.036619	0.324507
1.533288	-0.059896	0.363593
1.455129	-0.069905	0.386922
1.372188	-0.075357	0.386254
1.309394	-0.095491	0.339833
1.274641	-0.112678	0.269483
1.257704	-0.087385	0.195465
1.247352	-0.047125	0.125768
1.239476	0.004902	0.063356
1.234800	0.059618	0.002777
1.237557	0.112431	-0.059045
1.246130	0.157156	-0.126848
1.263070	0.200592	-0.193921
1.302113	0.235860	-0.251909
1.375260	0.233372	-0.283591
1.454670	0.234265	-0.280573
1.527534	0.245551	-0.247564
1.592234	0.248948	-0.198762
1.645022	0.231176	-0.140328
1.678602	0.200096	-0.073587
1.694561	0.165719	-0.001775
1.698180	0.128952	0.070982
1.691399	0.088776	0.141654
1.674700	0.045476	0.208415
1.645928	0.001148	0.270410
1.599093	-0.036811	0.324333
1.533260	-0.060095	0.363425
1.455133	-0.070160	0.386866
1.372183	-0.075607	0.386332
1.309401	-0.095724	0.339952
1.274871	-0.112765	0.269393
1.257960	-0.087414	0.195418
1.247604	-0.047156	0.125706
1.239690	0.004807	0.063239
1.234620	0.059483	0.002643
1.237319	0.112355	-0.059124
1.245895	0.157078	-0.126931
1.263174	0.200381	-0.194034
1.301997	0.235730	-0.252103
1.375248	0.233134	-0.283485
1.454684	0.234018	-0.280488
1.527628	0.245321	-0.247645
1.592389	0.248841	-0.198944
1.645099	0.230975	-0.140477
1.678567	0.199858	-0.073688
1.694579	0.165484	-0.001889
1.698321	0.128756	0.070884
1.691548	0.088583	0.141560
1.674753	0.045259	0.208279
1.645938	0.000935	0.270259
1.599054	-0.037003	0.324160
1.533232	-0.060294	0.363258
1.455137	-0.070416	0.386810
1.372179	-0.075857	0.386410
1.309407	-0.095957	0.340071
1.275100	-0.112853	0.269304
1.258215	-0.087442	0.195371
1.247856	-0.047187	0.125644
1.239904	0.004712	0.063122
1.234441	0.059349	0.002509
1.237081	0.112279	-0.059202
1.245659	0.156999	-0.127013
1.263278	0.200169	-0.194147
1.301880	0.235599	-0.252298
1.375235	0.232895	-0.283379
1.454698	0.233771	-0.280403
1.527721	0.245090	-0.247725
1.592543	0.248734	-0.199126
1.645176	0.230775	-0.140626
1.678532	0.199619	-0.073790
1.694597	0.165249	-0.002002
1.698463	0.128559	0.070785
1.691698	0.088390	0.141466
1.674806	0.045042	0.208143
1.645948	0.000721	0.270109
1.599015	-0.037195	0.323986
1.533204	-0.060492	0.363090
1.455142	-0.070671	0.386754
1.372322	-0.072438	0.385080
1.309541	-0.092750	0.338289
1.271977	-0.111377	0.270546
1.254680	-0.086813	0.196136
1.244386	-0.046542	0.126654
1.237060	0.006210	0.064897
1.237148	0.061101	0.004263
1.240517	0.113147	-0.058243
1.249066	0.157884	-0.125969
1.262053	0.203186	-0.192452
1.303630	0.237206	-0.249499
1.375475	0.236337	-0.284633
1.454431	0.237307	-0.281355
1.526298	0.248202	-0.246394
1.590294	0.249993	-0.196512
1.643896	0.233441	-0.138451
1.678772	0.202958	-0.072282
1.694082	0.168511	-0.000397
1.696262	0.131189	0.072097
1.689397	0.090983	0.142675
1.673821	0.048077	0.209959
1.645576	0.003769	0.272121
1.599380	-0.034365	0.326296
1.533497	-0.057547	0.365262
1.455026	-0.067041	0.387289
1.372317	-0.072687	0.385158
1.309547	-0.092983	0.338407
1.272206	-0.111465	0.270456
1.254936	-0.086841	0.196089
1.244638	-0.046573	0.126592
1.237274	0.006114	0.064780
1.236968	0.060966	0.004129
1.240279	0.113071	-0.058321
1.248830	0.157806	-0.126051
1.262157	0.202975	-0.192565
1.303513	0.237076	-0.249693
1.375463	0.236098	-0.284527
1.454444	0.237060	-0.281270
1.526392	0.247971	-0.246475
1.590448	0.249886	-0.196694
1.643973	0.233241	-0.138601
1.678737	0.202719	-0.072384
1.694101	0.168276	-0.000511
1.696403	0.130992	0.071998
1.689546	0.090789	0.142581
1.673873	0.047860	0.209823
1.645585	0.003556	0.271970
1.599341	-0.034557	0.326123
1.533469	-0.057746	0.365094
1.455031	-0.067296	0.387233
1.372313	-0.072937	0.385236
1.309554	-0.093216	0.338526
1.272435	-0.111553	0.270366
1.255192	-0.086869	0.196042
1.244891	-0.046604	0.126530
1.237488	0.006019	0.064663
1.236789	0.060832	0.003995
1.240041	0.112995	-0.058399
1.248594	0.157728	-0.126134
1.262261	0.202763	-0.192678
1.303397	0.236945	-0.249888
1.375450	0.235860	-0.284421
1.454458	0.236813	-0.281185
1.526485	0.247740	-0.246555
1.590603	0.249779	-0.196876
1.644050	0.233040	-0.138750
1.678702	0.202481	-0.072485
1.694119	0.168041	-0.000624
1.696545	0.130795	0.071899
1.689696	0.090596	0.142487
1.673926	0.047643	0.209687
1.645595	0.003342	0.271819
1.599302	-0.034749	0.325949
1.533441	-0.057945	0.364926
1.455035	-0.067552	0.387177
1.372308	-0.073187	0.385314
1.309560	-0.093449	0.338644
1.272665	-0.111641	0.270276
1.255447	-0.086898	0.195995
1.245143	-0.046635	0.126468
1.237702	0.005924	0.064547
1.236609	0.060697	0.003861
1.239804	0.112919	-0.058477
1.248359	0.157649	-0.126216
1.262365	0.202551	-0.192791
1.303280	0.236815	-0.250082
1.375438	0.235621	-0.284315
1.454472	0.236566	-0.281100
1.526579	0.247510	-0.246636
1.590757	0.249672	-0.197058
1.644127	0.232839	-0.138899
1.678667	0.202242	-0.072587
1.694137	0.167806	-0.000738
1.696686	0.130599	0.071801
1.689845	0.090403	0.142394
1.673979	0.047425	0.209551
1.645605	0.003129	0.271668
1.599263	-0.034940	0.325776
1.533412	-0.058143	0.364758
1.455039	-0.067807	0.387121
1.372303	-0.073436	0.385392
1.309567	-0.093683	0.338763
1.272894	-0.111729	0.270186
1.255703	-0.086926	0.195948
1.245395	-0.046666	0.126406
1.237915	0.005828	0.064430
1.236429	0.060563	0.003727
1.239566	0.112843	-0.058556
1.248123	0.157571	-0.126298
1.262469	0.202339	-0.192904
1.303164	0.236684	-0.250277
1.375425	0.235382	-0.284209
1.454486	0.236319	-0.281015
1.526672	0.247279	-0.246716
1.590912	0.249565	-0.197240
1.644204	0.232639	-0.139048
1.678632	0.202004	-0.072689
1.694155	0.167571	-0.000851
1.696828	0.130402	0.071702
1.689994	0.090210	0.142300
1.674032	0.047208	0.209415
1.645615	0.002916	0.271517
1.599224	-0.035132	0.325602
1.533384	-0.058342	0.364591
1.455043	-0.068063	0.387065
1.372299	-0.073686	0.385470
1.309573	-0.093916	0.338881
1.273123	-0.111817	0.270096
1.255959	-0.086954	0.195901
1.245647	-0.046697	0.126344
1.238129	0.005733	0.064313
1.236249	0.060428	0.003593
1.239328	0.112767	-0.058634
1.247888	0.157492	-0.126380
1.262573	0.202128	-0.193017
1.303047	0.236554	-0.250471
1.375413	0.235143	-0.284102
1.454499	0.236072	-0.280930
1.526765	0.247048	-0.246797
1.591066	0.249458	-0.197422
1.644281	0.232438	-0.139197
1.678598	0.201765	-0.072791
1.694174	0.167336	-0.000965
1.696969	0.130206	0.071603
1.690143	0.090016	0.142206
1.674084	0.046991	0.209280
1.645625	0.002702	0.271366
1.599185	-0.035324	0.325429
1.533356	-0.058541	0.364423
1.455048	-0.068318	0.387009
1.372294	-0.073936	0.385548
1.309580	-0.094149	0.339000
1.273353	-0.111904	0.270006
1.256215	-0.086982	0.195854
1.245899	-0.046728	0.126282
1.238343	0.005637	0.064197
1.236069	0.060293	0.003459
1.239090	0.112691	-0.058712
1.247652	0.157414	-0.126463
1.262677	0.201916	-0.193130
1.302931	0.236423	-0.250665
1.375400	0.234905	-0.283996
1.454513	0.235825	-0.280845
1.526859	0.246818	-0.246877
1.591220	0.249351	-0.197604
1.644358	0.232238	-0.139346
1.678563	0.201527	-0.072892
1.694192	0.167101	-0.001079
1.697111	0.130009	0.071505
1.690292	0.089823	0.142112
1.674137	0.046774	0.209144
1.645635	0.002489	0.271215
1.599146	-0.035516	0.325255
1.533328	-0.058739	0.364255
1.455052	-0.068574	0.386952
1.372289	-0.074185	0.385626
1.309586	-0.094382	0.339118
1.273582	-0.111992	0.269917
1.256470	-0.087010	0.195806
1.246152	-0.046759	0.126220
1.238557	0.005542	0.064080
1.235889	0.060159	0.003325
1.238853	0.112615	-0.058790
1.247416	0.157336	-0.126545
1.262781	0.201704	-0.193243
1.302814	0.236293	-0.250860
1.375388	0.234666	-0.283890
1.454527	0.235578	-0.280760
1.526952	0.246587	-0.246958
1.591375	0.249244	-0.197786
1.644435	0.232037	-0.139495
1.678528	0.201289	-0.072994
1.694210	0.166866	-0.001192
1.697252	0.129812	0.071406
1.690441	0.089630	0.142019
1.674190	0.046557	0.209008
1.645645	0.002275	0.271065
1.599107	-0.035708	0.325082
1.533300	-0.058938	0.364087
1.455056	-0.068829	0.386896
1.372285	-0.074435	0.385704
1.309593	-0.094615	0.339237
1.273812	-0.112080	0.269827
1.256726	-0.087038	0.195759
1.246404	-0.046790	0.126158
1.238771	0.005447	0.063963
1.235709	0.060024	0.003190
1.238615	0.112539	-0.058869
1.247181	0.157257	-0.126627
1.262885	0.201492	-0.193356
1.302698	0.236162	-0.251054
1.375375	0.234427	-0.283784
1.454541	0.235331	-0.280675
1.527046	0.246356	-0.247038
1.591529	0.249138	-0.197968
1.644512	0.231836	-0.139644
1.678493	0.201050	-0.073096
1.694228	0.166632	-0.001306
1.697394	0.129616	0.071307
1.690591	0.089436	0.141925
1.674243	0.046339	0.208872
1.645655	0.002062	0.270914
1.599067	-0.035899	0.324908
1.533271	-0.059137	0.363920
1.455061	-0.069085	0.386840
1.372280	-0.074684	0.385782
1.309599	-0.094848	0.339355
1.274041	-0.112168	0.269737
1.256982	-0.087066	0.195712
1.246656	-0.046821	0.126096
1.238984	0.005351	0.063847
1.235530	0.059890	0.003056
1.238377	0.112463	-0.058947
1.246945	0.157179	-0.126709
1.262989	0.201281	-0.193469
1.302581	0.236032	-0.251249
1.375363	0.234189	-0.283677
1.454554	0.235084	-0.280590
1.527139	0.246126	-0.247119
1.591684	0.249031	-0.198150
1.644589	0.231636	-0.139793
1.678458	0.200812	-0.073198
1.694246	0.166397	-0.001419
1.697535	0.129419	0.071208
1.690740	0.089243	0.141831
1.674295	0.046122	0.208736
1.645664	0.001848	0.270763
1.599028	-0.036091	0.324735
1.533243	-0.059335	0.363752
1.455065	-0.069340	0.386784
1.372275	-0.074934	0.385860
1.309606	-0.095081	0.339474
1.274270	-0.112256	0.269647
1.257238	-0.087095	0.195665
1.246908	-0.046852	0.126033
1.239198	0.005256	0.063730
1.235350	0.059755	0.002922
1.238139	0.112387	-0.059025
1.246710	0.157100	-0.126792
1.263093	0.201069	-0.193582
1.302465	0.235901	-0.251443
1.375350	0.233950	-0.283571
1.454568	0.234837	-0.280505
1.527233	0.245895	-0.247199
1.591838	0.248924	-0.198332
1.644666	0.231435	-0.139942
1.678424	0.200573	-0.073299
1.694265	0.166162	-0.001533
1.697677	0.129222	0.071110
1.690889	0.089050	0.141737
1.674348	0.045905	0.208600
1.645674	0.001635	0.270612
1.598989	-0.036283	0.324561
1.533215	-0.059534	0.363584
1.455069	-0.069595	0.386728
1.372271	-0.075184	0.385938
1.309612	-0.095314	0.339592
1.274500	-0.112344	0.269557
1.257493	-0.087123	0.195618
1.247160	-0.046882	0.125971
1.239412	0.005160	0.063613
1.235170	0.059621	0.002788
1.237902	0.112311	-0.059103
1.246474	0.157022	-0.126874
1.263197	0.200857	-0.193695
1.302348	0.235771	-0.251638
1.375338	0.233711	-0.283465
1.454582	0.234590	-0.280420
1.527326	0.245664	-0.247280
1.591993	0.248817	-0.198514
1.644743	0.231234	-0.140092
1.678389	0.200335	-0.073401
1.694283	0.165927	-0.001646
1.697818	0.129026	0.071011
1.691038	0.088856	0.141644
1.674401	0.045688	0.208464
1.645684	0.001422	0.270461
1.598950	-0.036475	0.324388
1.533187	-0.059733	0.363416
1.455074	-0.069851	0.386672
1.372266	-0.075433	0.386016
1.309618	-0.095547	0.339711
1.274729	-0.112432	0.269467
1.257749	-0.087151	0.195571
1.247413	-0.046913	0.125909
1.239626	0.005065	0.063496
1.234990	0.059486	0.002654
1.237664	0.112235	-0.059182
1.246238	0.156944	-0.126956
1.263301	0.200645	-0.193808
1.302232	0.235640	-0.251832
1.375325	0.233473	-0.283359
1.454595	0.234343	-0.280335
1.527420	0.245434	-0.247360
1.592147	0.248710	-0.198696
1.644820	0.231034	-0.140241
1.678354	0.200096	-0.073503
1.694301	0.165692	-0.001760
1.697960	0.128829	0.070912
1.691187	0.088663	0.141550
